ply
format ascii 1.0
element vertex 1454
property float x
property float y
property float z
property uchar red
property uchar green
property uchar blue
end_header
1.0047 -0.0000 -0.8039 221 97 60
1.5294 0.0656 2.2000 221 112 60
-0.3947 2.6000 1.1747 188 60 221
-0.2956 1.6028 -2.0000 60 208 221
-1.0863 2.6000 1.1508 198 60 221
-1.9949 -0.1200 0.0574 221 60 60
2.0313 -0.1200 -1.5909 221 60 60
0.7670 2.4383 2.2000 144 60 221
-1.8487 -0.0000 1.0965 221 100 60
-2.5000 2.2934 -1.7868 108 60 221
2.3650 2.7000 -0.2790 220 60 221
0.7695 0.1293 -2.0000 221 131 60
0.2393 0.0000 2.0017 221 98 60
0.6791 -0.1200 -0.8877 221 63 60
2.5933 -0.1200 -1.8824 221 63 60
2.6874 0.7647 -2.2000 129 221 60
1.5808 -0.0000 0.7536 221 89 60
-2.7000 2.6213 -1.9183 203 60 221
-2.5000 0.7427 -0.9989 142 221 60
-2.7000 1.2437 0.3280 60 221 129
2.5957 2.6000 -1.1198 193 60 221
-0.0047 1.5792 2.0000 60 214 221
-0.4673 0.2106 2.0000 221 160 60
2.6174 0.7546 1.2500 132 221 60
0.6034 2.6000 0.2808 192 60 221
-0.9903 0.7100 -1.1331 151 221 60
2.7000 0.7411 1.7842 134 221 60
-1.0802 2.6000 0.5614 198 60 221
-1.2459 -0.1200 0.9482 221 60 60
2.6719 -0.0000 -0.8169 221 88 60
2.6330 0.9000 0.2952 87 221 60
1.4618 2.6000 -0.4155 195 60 221
2.1002 -0.0000 -1.7854 221 93 60
2.3113 2.6000 1.2111 197 60 221
1.4734 0.0447 2.2000 221 102 60
-2.1731 2.7000 -2.1359 221 60 221
1.2843 1.7443 2.2000 60 173 221
2.5572 0.1595 -0.2500 221 138 60
-1.8162 2.6000 -0.5913 190 60 221
1.2540 2.7000 0.1778 221 60 221
1.6415 -0.0000 1.2565 221 90 60
1.1484 2.7000 1.3951 219 60 221
-1.7913 0.5300 2.0000 197 221 60
1.7881 2.7000 1.1703 221 60 221
-2.7000 0.0757 -2.0675 221 110 60
-2.5947 2.6000 1.8552 196 60 221
2.5000 0.0742 -1.7385 221 110 60
-2.6969 2.7000 -0.1955 221 60 221
-2.6088 -0.1200 1.3937 221 64 60
2.6716 0.9000 0.1581 90 221 60
2.5000 0.4147 -1.9504 221 216 60
-2.4404 -0.0000 2.1550 221 89 60
2.5697 2.7000 -0.4619 216 60 221
2.7000 0.3492 -2.1539 221 194 60
1.7933 1.8975 -2.2000 60 132 221
0.2821 0.5496 -2.0000 189 221 60
-2.6033 0.0000 1.1863 221 94 60
1.6981 1.7112 -2.2000 60 177 221
-1.3194 2.0982 -2.0000 60 69 221
2.5000 0.7097 -1.8866 151 221 60
2.3327 -0.1200 0.0912 221 64 60
2.5000 2.2002 -0.4806 78 60 221
1.8304 -0.0000 -0.8592 221 98 60
2.5000 2.1055 1.4639 60 70 221
-2.5534 1.6739 -2.2000 60 192 221
1.6923 2.7000 -1.9739 221 60 221
0.6260 -0.0000 0.7126 221 99 60
-2.4184 2.6000 -0.9995 191 60 221
-0.0900 -0.0000 -1.6188 221 99 60
2.3803 2.6000 -1.0643 193 60 221
2.7000 2.2604 -2.0722 90 60 221
2.7000 0.6356 -0.5690 163 221 60
2.5000 0.8904 1.3961 92 221 60
-2.0220 -0.1200 -1.4234 221 62 60
2.1352 2.7000 1.9510 221 60 221
1.7012 2.0344 2.2000 60 85 221
0.3860 2.7000 -0.6092 218 60 221
0.7594 1.6515 -2.0000 60 199 221
1.1937 2.3523 2.2000 118 60 221
-2.7000 0.0937 -2.1015 221 119 60
0.3120 -0.0000 0.7146 221 92 60
-2.2079 -0.1200 -1.2475 221 66 60
-0.5379 -0.1200 1.9624 221 65 60
0.2906 2.3972 -2.2000 133 60 221
-2.2906 2.5461 -2.0000 182 60 221
-2.7000 1.5352 -0.4515 60 221 215
0.6006 -0.0000 1.6398 221 94 60
0.1813 1.9490 -2.0000 60 108 221
-0.8536 0.3516 -0.4800 221 188 60
-1.2876 0.8497 -2.2000 108 221 60
1.9655 2.7000 0.1567 216 60 221
1.9901 -0.0000 -0.8715 221 99 60
1.3199 2.6000 1.3143 186 60 221
-2.5000 0.6176 -0.4563 173 221 60
-1.0900 2.6000 1.9580 189 60 221
-1.7580 0.4860 2.0000 213 221 60
-1.7952 1.5833 2.2000 60 220 221
-1.9820 -0.0000 -0.1697 221 94 60
0.6483 1.9621 2.0000 60 113 221
0.2991 2.6000 0.1206 187 60 221
1.3080 2.7000 1.8112 221 60 221
2.6066 2.7000 1.3200 214 60 221
2.2184 2.6000 2.1655 189 60 221
-1.5658 0.6208 -2.0000 170 221 60
-0.2308 2.6971 2.2000 218 60 221
2.5000 0.1202 -1.3699 221 124 60
2.7000 0.5919 1.7610 175 221 60
2.0761 -0.1200 -0.4927 221 61 60
-2.5000 2.2693 1.9272 95 60 221
2.1427 2.6000 -2.2000 197 60 221
2.1655 2.6000 2.0588 192 60 221
-1.4531 0.7100 -0.4728 150 221 60
-1.0469 0.4561 -2.0000 212 221 60
-2.7000 2.4718 1.0595 153 60 221
1.1996 2.7000 0.3852 218 60 221
0.9425 1.3219 2.2000 60 221 149
2.1459 2.7000 -2.0126 221 60 221
-0.2275 -0.0000 -1.2929 221 88 60
0.4919 0.6655 -2.0000 155 221 60
-2.7000 1.5452 -0.8358 60 221 207
-2.6376 0.0745 -2.0000 221 112 60
-2.7000 0.5014 1.8011 207 221 60
2.6081 1.9588 -2.2000 60 105 221
-0.2246 2.3640 2.0000 128 60 221
-0.0983 -0.1200 0.0083 221 60 60
-1.8040 -0.1200 -0.9310 221 65 60
2.6653 1.5126 1.2500 60 221 205
2.5908 2.6000 1.8899 187 60 221
2.7000 0.1311 -1.7224 221 128 60
-1.6770 1.7292 -2.2000 60 171 221
-0.0108 0.6522 -2.2000 165 221 60
1.3976 2.7000 -1.1054 221 60 221
-2.1935 -0.1200 -1.7200 221 61 60
-2.5000 0.8307 -1.1355 106 221 60
-2.5285 2.6000 -1.9503 191 60 221
0.1915 -0.1200 0.4279 221 65 60
2.5693 2.6000 0.7025 193 60 221
1.3313 2.1209 2.2000 60 63 221
-1.4973 2.6000 0.7286 190 60 221
2.6431 2.6000 -1.3175 188 60 221
-0.3606 2.6000 0.8859 196 60 221
-1.2382 -0.0422 -2.2000 221 87 60
1.4612 0.0038 2.0000 221 100 60
1.2021 -0.1200 -1.1027 221 64 60
2.4909 -0.1200 0.9733 221 66 60
-2.1654 -0.0000 1.0389 221 99 60
-0.3937 -0.0000 0.6646 221 100 60
0.9528 0.1366 -2.0000 221 136 60
-1.3297 1.6739 -2.0000 60 192 221
-0.0516 2.6000 -1.2375 189 60 221
0.8685 2.6000 1.5763 188 60 221
-0.8944 2.6000 1.4824 195 60 221
-2.3874 2.7000 0.9236 221 60 221
-2.5536 0.0000 0.4062 221 96 60
1.5739 1.1625 2.2000 60 221 101
2.7000 2.2990 0.5895 106 60 221
-1.2313 -0.1200 0.0863 221 60 60
-2.1010 -0.1200 -1.9042 221 62 60
-1.2504 2.7000 -1.0384 221 60 221
-2.5000 0.9366 1.6592 79 221 60
-0.3285 -0.1200 -1.1869 221 64 60
-0.7921 -0.0000 0.9578 221 91 60
1.8188 -0.1200 0.5510 221 60 60
0.7594 2.2129 2.2000 76 60 221
-2.7000 2.5512 -2.0641 173 60 221
-0.5994 -0.0000 -1.7034 221 93 60
0.5399 2.6000 1.1985 193 60 221
2.1488 0.0853 -2.2000 221 122 60
1.0318 -0.1200 -0.8934 221 60 60
1.0651 2.3531 -2.2000 118 60 221
0.4579 1.3437 -2.2000 60 221 158
1.8464 2.6000 1.8375 193 60 221
-2.7000 1.8961 1.5026 60 130 221
-2.6465 2.6000 -0.3597 192 60 221
0.9905 0.5945 -2.2000 177 221 60
0.4812 0.6328 2.0000 170 221 60
-0.2432 -0.1200 1.6776 221 60 60
-1.7336 2.5143 2.2000 171 60 221
-2.7000 0.1454 -0.3512 221 134 60
1.1068 2.7000 -1.3051 219 60 221
-2.5000 1.2652 -0.4375 60 221 131
2.2608 2.6000 -0.6476 193 60 221
2.1247 -0.1200 0.5876 221 60 60
1.6888 -0.0000 -0.7096 221 96 60
2.4289 0.7484 -2.2000 138 221 60
-0.7048 -0.1200 1.5476 221 64 60
-1.6650 -0.0000 -0.5860 221 93 60
-1.9200 0.6806 -0.4548 160 221 60
1.7569 -0.0000 -0.5684 221 100 60
-0.5000 0.8167 2.0072 119 221 60
2.7000 1.8497 -0.7106 60 146 221
-2.1937 2.7000 -0.7954 217 60 221
-0.7508 -0.1200 1.3396 221 61 60
2.5000 1.3437 -1.3094 60 221 159
2.6991 0.0000 1.6580 221 88 60
-2.6926 0.0000 0.1278 221 98 60
-1.6317 -0.1200 -1.2188 221 60 60
-0.2626 -0.0000 -0.8659 221 95 60
-0.3152 2.6545 2.2000 205 60 221
-0.4365 0.0000 2.0650 221 98 60
1.1650 0.1345 2.0000 221 126 60
2.7000 0.1348 -1.0623 221 130 60
-2.2880 2.6458 2.2000 200 60 221
-1.2994 -0.1200 -1.1831 221 60 60
-1.1041 2.7000 -1.7479 217 60 221
2.2883 -0.1200 -1.5806 221 64 60
-0.3049 -0.0011 -2.2000 221 94 60
2.5000 1.9893 -0.6692 60 105 221
-1.2983 2.7000 1.8430 220 60 221
-2.2830 2.6000 -2.0564 195 60 221
-0.3642 2.7000 0.6201 221 60 221
2.6530 1.6946 -2.2000 60 180 221
-0.4603 2.6000 1.8667 193 60 221
-0.1276 -0.0000 -0.7945 221 93 60
2.0221 1.1203 -2.0000 60 221 88
-0.6532 -0.0000 -1.3850 221 100 60
2.5000 2.4056 0.7490 134 60 221
1.1618 -0.0000 -0.9542 221 97 60
-1.4992 -0.0000 -1.9706 221 90 60
-0.1597 2.6000 -1.6801 189 60 221
-0.2917 2.7000 -0.5868 221 60 221
-1.9827 0.7100 -1.0802 146 221 60
-1.1573 -0.0000 -1.8026 221 97 60
0.7470 2.6000 -0.3702 188 60 221
0.7745 2.7000 0.3713 220 60 221
-1.3046 2.7000 0.3289 216 60 221
-0.5231 2.7000 0.7278 221 60 221
-1.0540 2.7000 -1.5053 217 60 221
1.0355 2.0958 2.2000 60 75 221
-1.6754 -0.0000 0.3364 221 93 60
-2.7000 -0.0848 0.4404 221 68 60
-2.7000 1.6893 -1.6842 60 182 221
2.1035 0.5932 -2.2000 176 221 60
2.3589 2.6000 -2.1526 198 60 221
-1.3090 -0.0000 -1.0903 221 88 60
0.1044 2.6000 1.8151 189 60 221
-1.5829 2.7000 -2.0380 215 60 221
0.2320 -0.1200 0.1054 221 60 60
1.4589 1.7542 2.0000 60 166 221
-0.2175 2.7000 -1.5460 221 60 221
0.9050 -0.0000 0.6753 221 91 60
-0.5000 0.1439 2.1438 221 131 60
1.0696 2.7000 1.5800 215 60 221
0.9605 2.7000 1.8739 221 60 221
-1.0535 2.7000 0.9231 219 60 221
-2.4472 2.6000 1.7594 191 60 221
2.5000 1.8571 -0.3375 60 141 221
0.1135 -0.0000 -2.1105 221 93 60
1.7995 0.1037 2.0000 221 128 60
-0.0005 2.6000 -1.1512 195 60 221
1.7060 0.1785 2.0000 221 150 60
-2.6787 -0.1200 -2.1945 221 60 60
-2.2410 -0.0000 -1.1696 221 92 60
0.6568 0.7396 2.0000 134 221 60
2.2789 -0.0000 -1.7590 221 95 60
0.1074 -0.1200 -0.0204 221 60 60
2.3236 2.7000 -1.5068 221 60 221
-1.6978 2.5044 -2.2000 160 60 221
2.6082 1.3756 -2.0000 60 221 171
-2.1540 2.6000 -0.5304 189 60 221
-1.7553 2.6000 -0.9160 197 60 221
0.3853 -0.0000 -1.0279 221 95 60
1.5946 -0.1200 1.0066 221 60 60
-2.6431 2.7000 -0.1553 221 60 221
0.8439 -0.1200 1.2791 221 60 60
-1.6802 -0.0000 1.4295 221 93 60
0.7529 0.9603 -2.2000 69 221 60
2.5000 2.5089 -0.4827 170 60 221
2.3622 -0.0000 1.0941 221 95 60
-2.5000 2.1798 1.4206 71 60 221
2.5000 1.6692 -1.1383 60 192 221
-1.2841 -0.1200 -0.3831 221 63 60
-1.8055 1.5516 -2.0000 60 221 217
2.5469 -0.0000 -1.2864 221 98 60
-2.2659 2.6000 1.5448 196 60 221
1.4785 2.7000 -1.5955 215 60 221
2.0782 2.6000 -0.2687 196 60 221
2.5000 0.5118 -1.7924 200 221 60
0.8047 2.6000 1.2616 192 60 221
-2.4109 2.6000 0.9015 186 60 221
2.5000 0.4395 1.5798 217 221 60
-1.6081 2.6000 -1.7327 197 60 221
-0.0615 -0.0000 -1.1873 221 98 60
-1.5577 1.7680 2.0000 60 167 221
-2.7000 1.8433 -2.1117 60 148 221
-2.5000 2.2270 1.8392 89 60 221
2.5000 0.2641 1.0428 221 170 60
2.7000 1.6072 1.6119 60 214 221
1.2913 0.7959 -2.2000 126 221 60
-2.6756 -0.1200 -0.6303 221 60 60
-1.4101 -0.1200 0.4113 221 60 60
-0.9486 2.7000 1.0983 217 60 221
-1.2393 1.2610 -2.2000 60 221 136
1.3364 2.6000 1.5478 191 60 221
1.7050 0.7414 -2.0000 138 221 60
-0.6662 1.6986 -2.0000 60 180 221
0.7951 -0.0000 1.2200 221 93 60
2.7000 2.3655 -0.2707 129 60 221
2.2678 -0.1200 1.5615 221 65 60
2.5000 0.4702 0.8612 216 221 60
-1.9800 0.0636 -1.1622 221 117 60
-1.3428 -0.1200 -0.0768 221 66 60
2.5722 -0.0000 -0.5254 221 91 60
-0.2627 1.3148 2.2000 60 221 149
-2.6772 -0.0000 0.8208 221 99 60
1.8191 0.9420 -2.0000 81 221 60
-1.5045 2.6286 2.2000 204 60 221
1.3469 2.6000 0.1607 198 60 221
-1.4101 2.6000 1.5444 189 60 221
2.3869 0.9935 2.0000 61 221 60
0.6599 1.4329 2.2000 60 221 180
2.7000 2.1647 2.0617 67 60 221
2.7000 2.3611 -0.3116 126 60 221
0.0503 1.9674 -2.0000 60 105 221
-0.2291 2.3700 2.0000 131 60 221
1.3376 -0.0000 1.6551 221 90 60
-2.7000 0.8056 1.4712 116 221 60
0.0829 -0.1200 -1.9037 221 60 60
2.2365 -0.1200 -0.9859 221 60 60
1.0815 2.2731 -2.2000 100 60 221
0.7553 -0.1200 0.3802 221 60 60
-1.6271 2.0809 2.2000 60 80 221
2.5000 1.5049 1.6343 60 221 197
0.9238 2.6000 0.9217 194 60 221
-1.7881 2.6000 2.0956 191 60 221
2.7000 0.1103 0.3842 221 128 60
-2.7000 2.2290 1.4852 83 60 221
-0.8885 2.6000 -1.9758 190 60 221
1.4835 2.6000 2.0524 186 60 221
-2.4676 -0.1200 -0.6410 221 60 60
0.4978 -0.0000 1.7919 221 89 60
-2.7000 2.6400 0.1960 206 60 221
2.0961 2.7000 0.2955 217 60 221
2.3806 -0.1200 -0.8391 221 60 60
1.4897 -0.1200 1.9604 221 62 60
-2.6739 0.0000 -0.2312 221 94 60
-2.5263 1.3107 -2.2000 60 221 146
2.5008 2.0374 -0.2500 60 92 221
2.5759 2.1461 -2.2000 61 60 221
2.5000 1.6411 1.5783 60 199 221
-0.7029 -0.1200 -0.2665 221 60 60
2.5000 0.8852 -0.1461 93 221 60
-1.4153 2.6000 1.7398 190 60 221
-0.0508 2.7000 2.0623 221 60 221
2.6127 2.3666 -2.2000 126 60 221
1.3413 -0.1200 0.4661 221 63 60
2.5110 1.6791 2.2000 60 195 221
0.8190 -0.1200 1.7857 221 62 60
-2.5000 0.9970 2.0238 60 221 60
2.7000 0.1158 -1.6846 221 129 60
-2.3932 -0.0000 -1.3995 221 91 60
-1.4194 -0.1200 -0.8875 221 63 60
1.2240 2.7000 1.1809 221 60 221
1.6621 0.7993 2.2000 115 221 60
2.4929 1.6513 2.2000 60 199 221
2.0816 2.6000 1.1254 198 60 221
-2.4555 2.7000 1.6759 220 60 221
1.3143 2.2477 2.2000 94 60 221
2.1049 0.2763 -2.0000 221 175 60
-1.8840 -0.0000 1.3132 221 90 60
-2.5000 0.6866 0.3462 148 221 60
0.5102 2.6000 -0.6314 190 60 221
1.8248 1.6661 -2.2000 60 189 221
2.5000 1.2335 1.7124 60 221 124
-2.0293 -0.1200 1.1461 221 60 60
2.6967 2.4812 2.0000 161 60 221
-2.3001 2.6000 1.8680 186 60 221
-2.3307 -0.0000 -0.5711 221 100 60
0.4658 2.7000 -0.8897 215 60 221
-0.0282 2.6000 2.1511 194 60 221
-0.6966 2.4644 2.0000 158 60 221
1.4598 1.9900 2.2000 60 99 221
2.5864 2.6000 -0.2889 192 60 221
2.7000 -0.0744 1.0544 221 76 60
-1.1559 2.6000 -0.9358 195 60 221
2.2269 -0.1200 1.9538 221 60 60
2.0937 2.7000 1.1397 214 60 221
2.5327 0.9000 0.7138 87 221 60
-2.2230 0.5775 -2.2000 181 221 60
0.3002 2.7000 0.8204 218 60 221
-1.3634 1.6649 -2.2000 60 191 221
2.5644 2.7000 0.8475 219 60 221
-0.3944 0.0000 -2.0411 221 100 60
-1.8596 0.3115 -2.0000 221 178 60
0.5594 -0.1200 1.0984 221 65 60
2.7000 2.1228 1.7737 60 69 221
-0.3927 1.3162 2.0000 60 221 142
-0.1776 0.8489 2.2000 103 221 60
-1.5203 0.2480 -2.0000 221 169 60
1.5073 2.7000 -1.1192 215 60 221
-2.5914 2.6000 -1.1580 186 60 221
-2.7000 1.4016 0.1073 60 221 172
2.7000 2.6277 -1.0534 202 60 221
-0.8610 2.7000 0.1767 218 60 221
-1.3058 0.7900 -0.9955 121 221 60
1.2035 -0.1200 -1.1812 221 60 60
2.3621 2.0495 -2.0000 60 86 221
-1.7717 0.7900 -0.5209 128 221 60
-2.7000 1.3573 -0.7806 60 221 160
0.2371 2.6000 -1.1821 191 60 221
2.5000 1.7745 -2.1046 60 162 221
-2.5191 0.0000 0.1084 221 95 60
1.3238 -0.1200 -1.3934 221 62 60
-2.3721 2.0429 -2.2000 60 84 221
0.3983 2.7000 1.6230 221 60 221
-1.0069 2.6000 0.5199 196 60 221
-2.0289 2.6000 -0.2708 193 60 221
-0.7496 -0.1200 1.9184 221 60 60
-1.7485 0.7100 -0.7590 141 221 60
-2.5815 2.6000 0.9877 189 60 221
-2.5000 0.0770 -0.2015 221 111 60
-1.2447 2.4315 -2.0000 141 60 221
0.6197 2.6000 -0.8074 190 60 221
-0.2294 -0.1200 -1.5822 221 60 60
2.6926 2.5455 -0.2500 177 60 221
0.2921 -0.1200 -2.0449 221 64 60
-2.0544 2.3520 -2.2000 121 60 221
-0.3897 1.2273 -2.0000 60 221 125
-2.1396 -0.1200 -0.3588 221 60 60
2.7000 2.3535 0.3675 124 60 221
-2.6290 2.4998 2.2000 167 60 221
-2.5000 2.5041 -0.1434 166 60 221
-2.7000 1.5844 -0.4043 60 218 221
2.5000 1.5256 -1.4412 60 221 203
-1.9192 0.0499 2.2000 221 106 60
2.6012 0.8728 -2.0000 93 221 60
-1.7989 -0.1200 0.4041 221 60 60
-2.7000 1.1222 -1.6231 60 221 88
-1.1656 -0.0000 -0.8067 221 97 60
2.7000 -0.0127 -0.8363 221 86 60
1.3276 -0.0000 1.5712 221 100 60
0.7582 2.6000 -1.6843 198 60 221
1.1285 0.1381 -2.2000 221 128 60
1.3796 -0.1200 1.5413 221 60 60
-1.7850 -0.1200 -2.1277 221 60 60
1.3245 -0.1200 1.1507 221 61 60
0.2400 1.8413 -2.2000 60 144 221
-2.6981 2.6000 0.3641 189 60 221
2.2011 -0.0000 -1.2005 221 93 60
-0.7529 2.5155 2.0000 173 60 221
-1.3348 -0.0000 1.8795 221 89 60
-1.6923 2.1696 -2.0000 71 60 221
-2.5000 1.2675 1.2099 60 221 136
0.3807 -0.1200 0.5458 221 60 60
0.6455 -0.0000 -0.8506 221 89 60
2.6372 0.0000 -2.1305 221 99 60
-0.8999 2.7000 1.3814 218 60 221
-2.7000 -0.0443 1.4651 221 77 60
-2.5000 0.8377 2.0315 111 221 60
-2.7000 1.8724 1.7500 60 138 221
-1.7649 -0.0000 0.0930 221 94 60
2.7000 0.6374 -2.0015 170 221 60
2.5865 2.6000 1.8858 189 60 221
-2.2538 0.5717 2.2000 185 221 60
-0.5000 0.9454 2.0054 83 221 60
-2.7000 1.2215 0.9516 60 221 125
-1.5540 2.7000 -1.2664 221 60 221
1.7152 0.0967 -2.2000 221 127 60
-0.5621 -0.0000 -0.9200 221 100 60
1.0527 -0.0000 1.5155 221 100 60
-2.5000 1.7699 -0.9784 60 166 221
-2.7000 1.8732 0.3562 60 129 221
-0.7752 2.6000 0.6014 193 60 221
2.5000 0.2151 -1.1944 221 153 60
-0.1431 2.6000 -2.1816 198 60 221
-1.6858 1.4663 -2.2000 60 221 191
-2.7000 0.7880 -1.5240 124 221 60
-1.2380 -0.0000 -0.7270 221 94 60
-1.4997 -0.1200 0.0827 221 60 60
2.7000 0.1780 -1.4341 221 147 60
2.5984 0.3632 -2.0000 221 194 60
2.7000 2.2533 1.5974 97 60 221
2.5000 0.9894 2.1251 68 221 60
-0.8951 -0.0000 -0.7594 221 94 60
-0.6867 2.6000 2.0642 195 60 221
0.7002 1.8575 2.2000 60 141 221
2.7000 1.4208 -1.7442 60 221 176
0.2474 0.4317 2.0000 220 221 60
-2.5000 2.4715 -1.1333 158 60 221
0.4595 -0.1200 0.5899 221 60 60
-2.5000 1.6379 -0.0508 60 204 221
1.8147 2.7000 1.4033 221 60 221
-2.0673 1.7638 2.0000 60 168 221
-2.5554 2.6000 0.3603 190 60 221
-0.8267 -0.0000 0.7401 221 98 60
-2.1020 1.6703 2.2000 60 199 221
1.6505 2.6000 -2.1786 196 60 221
1.8722 2.6000 -0.7132 195 60 221
0.8717 2.7000 1.5737 218 60 221
2.5000 1.1584 -1.2235 60 221 108
0.2083 -0.1200 1.7783 221 64 60
1.8503 0.1582 -2.2000 221 139 60
0.5373 2.7000 0.6088 217 60 221
-1.0125 2.6000 -2.0836 198 60 221
-1.9045 0.4153 -2.2000 221 210 60
2.5668 2.1584 -0.2500 67 60 221
2.7000 2.0946 -0.2722 60 69 221
2.3349 -0.1200 1.3332 221 60 60
0.7712 2.7000 0.6600 216 60 221
2.6715 2.7000 1.9716 215 60 221
1.6008 1.1626 2.2000 60 221 105
1.6850 -0.0000 1.4895 221 95 60
0.7626 -0.0000 -1.6705 221 99 60
0.5880 -0.0000 0.0567 221 100 60
1.6357 1.3142 -2.2000 60 221 144
-2.0427 1.4316 -2.2000 60 221 183
2.5335 0.7772 -2.0000 120 221 60
-0.5000 2.1975 2.0310 83 60 221
2.6376 -0.0000 1.3860 221 88 60
2.7000 2.5159 1.4991 169 60 221
-2.7000 2.0616 -1.4090 60 76 221
-1.2499 2.7000 0.6972 216 60 221
-1.5002 -0.1200 0.2757 221 60 60
2.0310 -0.1200 1.2924 221 61 60
-0.8606 2.7000 0.4587 221 60 221
-1.0714 0.6471 -2.0000 162 221 60
-2.6376 -0.1200 0.8525 221 60 60
-2.7000 2.4713 1.2535 159 60 221
0.8618 2.6000 -1.7154 193 60 221
2.7000 0.7131 -1.6693 140 221 60
1.0661 2.6177 -2.2000 201 60 221
0.3739 -0.1200 1.3063 221 65 60
-2.5000 0.0755 0.4486 221 115 60
1.0400 2.7000 -0.5831 216 60 221
-1.1915 2.5519 2.2000 175 60 221
0.8229 2.7000 0.2788 218 60 221
1.3918 2.2552 -2.0000 94 60 221
1.2438 2.1282 2.2000 61 60 221
-0.5000 2.1314 2.0646 60 64 221
-2.7000 2.3035 0.2148 103 60 221
-2.5491 1.4270 -2.2000 60 221 179
-2.7000 1.6970 0.6405 60 186 221
0.4315 -0.0000 -1.6034 221 99 60
-2.4003 0.9141 -2.2000 92 221 60
1.2236 2.6000 2.1853 195 60 221
0.5962 -0.1200 -0.3327 221 62 60
1.0375 2.6000 2.1932 198 60 221
-1.6348 0.2406 2.0000 221 167 60
2.5000 0.8228 -1.4003 107 221 60
-0.3649 -0.1200 -1.8727 221 61 60
-0.1027 0.6449 -2.2000 164 221 60
0.1012 2.6000 2.0722 196 60 221
0.2467 2.7000 1.5658 216 60 221
-2.2522 0.0360 2.2000 221 105 60
-2.7000 2.2558 2.1310 92 60 221
1.5136 -0.0000 0.9420 221 95 60
2.5055 -0.0000 1.8826 221 91 60
-2.7000 1.4048 0.8235 60 221 178
-1.9803 2.6000 0.7184 194 60 221
0.9781 1.3575 -2.0000 60 221 162
-2.6568 -0.1200 -0.6959 221 60 60
-0.5887 -0.1200 0.6486 221 60 60
2.2330 0.9877 2.0000 70 221 60
-0.0995 2.6000 -1.6751 195 60 221
2.7000 2.2251 1.7310 85 60 221
-2.5000 1.0359 -2.0929 60 221 62
0.2623 2.7000 -0.8835 221 60 221
2.0570 2.6000 -2.1292 189 60 221
-1.5183 2.6000 -1.9313 189 60 221
1.9491 2.6000 -0.8917 195 60 221
-1.6502 -0.1200 1.9640 221 63 60
0.4122 2.6000 -0.5656 198 60 221
-0.5973 2.7000 1.2805 218 60 221
2.7000 0.7623 1.9659 127 221 60
-1.6446 -0.0000 1.3838 221 91 60
1.3666 2.6000 1.4354 194 60 221
-2.6815 1.2847 2.0000 60 221 134
-2.4361 2.6000 -2.1425 188 60 221
-0.8200 0.1770 -1.1222 221 141 60
0.1910 0.0233 2.2000 221 97 60
-2.2404 -0.1200 0.5305 221 62 60
-1.7010 0.3608 -2.2000 221 202 60
0.8093 2.6000 0.2300 191 60 221
-0.7053 -0.1200 0.4836 221 65 60
0.7154 2.6000 2.0785 188 60 221
-0.4716 1.9411 -2.2000 60 118 221
2.7000 0.8685 -0.0228 96 221 60
-2.0366 2.7000 -0.1934 221 60 221
-1.5390 2.2165 -2.0000 86 60 221
-2.4784 0.0746 2.0000 221 111 60
0.6131 0.5020 -2.2000 199 221 60
-2.5000 1.2084 1.1123 60 221 112
2.5000 0.8543 -0.9664 106 221 60
-2.5119 0.8655 2.0000 101 221 60
-1.7198 2.6000 2.0632 192 60 221
1.8824 2.6000 1.6157 195 60 221
1.6439 0.9819 2.2000 71 221 60
-2.7000 1.2910 0.7866 60 221 140
-0.4024 1.0291 2.2000 60 221 69
-2.4414 2.6000 -1.1845 186 60 221
1.1520 2.6129 2.2000 192 60 221
2.2723 0.8948 2.0000 89 221 60
2.2990 1.5673 2.2000 60 221 213
-2.6089 0.0000 0.5750 221 97 60
1.3893 1.9750 2.0000 60 111 221
0.7776 1.0829 2.0000 60 221 79
0.4270 2.6656 2.2000 213 60 221
-1.0706 2.6000 1.0618 189 60 221
2.7000 0.9689 1.9363 71 221 60
2.2898 2.7000 1.9545 221 60 221
2.4387 -0.0000 0.9457 221 100 60
2.6426 1.5445 -2.0000 60 221 216
-1.8259 2.7000 -0.2007 218 60 221
-2.7000 1.7009 -1.1649 60 178 221
-0.0430 2.1272 2.0000 60 69 221
0.5523 1.7537 -2.0000 60 175 221
0.9421 1.3280 -2.2000 60 221 147
-1.8170 -0.1200 -0.6541 221 64 60
2.7000 2.2743 -1.0337 98 60 221
-2.6957 -0.1200 0.7943 221 60 60
2.5000 0.2027 -1.2779 221 149 60
1.0856 -0.1200 -0.7171 221 64 60
0.5236 2.6000 -0.1807 198 60 221
-2.5000 0.1620 -0.4314 221 144 60
2.3086 2.6000 -1.6329 187 60 221
-1.9347 -0.1200 -0.6830 221 60 60
-2.5000 2.4573 1.7890 157 60 221
-1.5288 2.6000 1.4780 187 60 221
2.2904 -0.0000 0.2110 221 92 60
-2.7000 0.8475 -0.6375 103 221 60
-2.5000 0.6321 0.8241 172 221 60
-2.5000 0.8494 -2.0258 104 221 60
0.2889 0.9491 -2.2000 78 221 60
2.0522 -0.1200 0.4653 221 60 60
-1.3060 -0.0000 -2.0502 221 95 60
2.1847 2.7000 -0.0622 217 60 221
-2.0308 -0.0000 0.3209 221 92 60
0.6209 0.2833 -2.0000 221 171 60
0.2050 0.6286 2.2000 166 221 60
-0.8427 2.4435 -2.2000 153 60 221
2.5000 0.6408 -0.5585 159 221 60
-0.9348 -0.0000 1.3367 221 89 60
-0.2085 0.6087 2.2000 176 221 60
0.4950 1.5696 2.2000 60 221 217
2.7000 2.3900 -2.1717 127 60 221
-0.5924 2.0500 2.1118 60 85 221
1.0737 1.0220 2.2000 60 221 69
2.2024 -0.1200 0.4773 221 61 60
-2.6371 -0.1200 1.8949 221 60 60
-2.5184 2.5260 -2.2000 175 60 221
-1.3881 2.7000 -1.5892 221 60 221
2.5000 0.9283 2.1837 84 221 60
1.9748 0.2274 -2.0000 221 157 60
0.8397 2.6274 -2.2000 197 60 221
2.2904 2.3753 -2.0000 132 60 221
-2.7000 1.7007 -1.0537 60 190 221
-0.4307 -0.1200 1.1464 221 66 60
-0.5000 0.1420 2.1372 221 140 60
-1.6953 2.6000 -1.9566 186 60 221
-0.2274 2.6000 2.1936 197 60 221
1.9786 2.7000 -1.2420 217 60 221
0.4390 2.7000 0.6219 219 60 221
-0.7471 -0.0000 -0.2605 221 93 60
-1.3162 0.9130 -2.0000 87 221 60
0.9314 -0.1200 -1.0861 221 60 60
-1.7587 2.6000 -1.5622 198 60 221
1.0400 1.0695 -2.0000 60 221 82
-1.1896 -0.1200 -1.5016 221 61 60
-1.6148 0.1544 -2.0000 221 136 60
0.2576 1.3867 -2.2000 60 221 172
0.3578 -0.0000 0.0424 221 88 60
-1.8928 2.6000 2.1448 187 60 221
-0.5318 2.7000 1.5013 221 60 221
-2.7000 0.2723 0.0219 221 170 60
-2.5000 0.5031 -1.0975 203 221 60
-0.9057 0.0000 -2.0085 221 94 60
1.0189 1.9188 2.0000 60 128 221
-1.9328 1.2933 -2.0000 60 221 135
1.5589 2.6000 -0.4796 197 60 221
2.5984 -0.0000 -1.2301 221 100 60
2.5000 1.1141 -1.4528 60 221 96
-2.6740 0.0000 -1.8210 221 92 60
-2.1509 2.7000 0.3035 216 60 221
-2.5168 2.6000 -1.7211 197 60 221
2.5000 1.6257 1.6465 60 199 221
-0.7839 2.7000 1.8504 221 60 221
-2.7000 1.8218 0.2782 60 148 221
2.5000 1.1877 -1.0477 60 221 114
2.5000 0.3784 0.9954 221 203 60
2.7000 2.2966 -1.8072 100 60 221
-1.8772 2.7000 0.5569 221 60 221
-2.6907 2.2984 2.2000 105 60 221
2.7000 1.8519 -0.4261 60 138 221
-0.5741 -0.1200 0.0050 221 60 60
2.7000 2.6377 -0.0120 209 60 221
-1.9817 0.0000 -2.0959 221 99 60
-2.6300 2.6000 1.7954 198 60 221
2.5000 1.2866 -0.8366 60 221 142
0.5123 -0.0000 0.3540 221 95 60
-0.4162 -0.1200 1.1616 221 60 60
2.5000 1.8074 1.6677 60 155 221
-2.5000 0.0853 0.7620 221 117 60
-2.7000 0.0891 1.8907 221 123 60
-2.5000 0.0178 0.2183 221 94 60
-2.6273 0.0000 0.2465 221 90 60
2.5000 1.5238 -1.1849 60 221 211
2.5000 1.3473 -1.5546 60 221 161
1.8976 -0.1200 0.5756 221 66 60
-2.7000 2.2956 -0.8850 100 60 221
-2.5000 0.5543 1.3330 194 221 60
2.2504 2.6496 -2.2000 210 60 221
1.4320 -0.0000 1.5440 221 100 60
0.9036 -0.1200 -0.4194 221 60 60
2.5569 2.0301 -2.2000 60 94 221
-2.6329 2.2049 2.2000 85 60 221
2.7000 1.7492 -1.0509 60 173 221
-2.7000 1.6203 1.2592 60 209 221
1.1182 -0.0000 0.1097 221 91 60
2.1799 2.0956 2.2000 60 76 221
-2.6949 0.0202 2.2000 221 96 60
0.3400 2.7000 -1.4729 220 60 221
-2.5709 0.4876 -2.2000 208 221 60
1.5459 2.6000 1.5017 191 60 221
-1.9849 -0.0000 0.1401 221 94 60
-2.5675 -0.1200 0.8675 221 65 60
0.6203 -0.0000 -1.4255 221 90 60
-1.7608 2.6000 -1.1715 187 60 221
-2.7000 1.8991 1.9380 60 126 221
0.7435 2.6000 1.1997 191 60 221
2.5000 2.1357 -1.5822 60 60 221
0.2458 -0.1200 -1.9779 221 60 60
0.1862 -0.0346 2.2000 221 88 60
0.2081 2.7000 -0.8509 220 60 221
-2.3385 1.0460 -2.0000 60 221 77
2.5000 2.4648 -1.9138 159 60 221
-2.5000 0.8715 0.3971 104 221 60
1.6302 2.7000 1.5257 221 60 221
1.5962 1.1107 2.2000 60 221 92
-0.6955 -0.0000 0.8282 221 94 60
-0.3015 2.1910 -2.2000 80 60 221
-2.5000 2.2852 -0.4708 103 60 221
2.5812 1.3221 2.2000 60 221 144
-2.3553 0.7516 -2.0000 139 221 60
-2.5000 1.8652 -0.5536 60 137 221
-2.6472 0.0000 0.1016 221 95 60
2.5000 2.4420 1.6317 153 60 221
1.3892 0.8222 -2.2000 114 221 60
2.5528 2.6000 -1.7434 189 60 221
0.4783 0.1337 -2.2000 221 135 60
0.1150 2.6000 -2.1609 191 60 221
2.3408 2.6000 -2.0835 191 60 221
-2.3373 0.4651 2.2000 219 221 60
-2.6582 0.1177 2.2000 221 133 60
-0.7623 2.6000 -1.5052 194 60 221
1.3167 -0.1200 0.1210 221 63 60
2.5619 2.6000 -0.5249 198 60 221
-1.8118 0.2309 2.2000 221 159 60
2.2232 2.6000 2.1898 187 60 221
-1.7086 0.7100 -0.6851 145 221 60
2.5360 -0.1200 1.5160 221 61 60
-2.5000 0.1727 0.5053 221 140 60
0.9761 -0.0837 2.2000 221 66 60
0.3883 0.6057 -2.0000 180 221 60
-2.7000 0.4689 -1.3968 210 221 60
0.9790 2.6000 -1.3101 195 60 221
-2.7000 -0.1084 -1.3951 221 68 60
2.1416 0.9612 -2.2000 73 221 60
-2.0932 2.4810 -2.0000 154 60 221
2.5000 0.1418 -0.9779 221 129 60
-0.2824 0.6757 -2.2000 157 221 60
1.9340 1.1302 2.2000 60 221 96
1.5390 -0.0000 0.3599 221 98 60
-0.9840 2.7000 -0.6680 221 60 221
-2.5000 2.1779 -0.2086 73 60 221
2.7000 1.1288 -0.8881 60 221 89
-2.0502 1.7576 2.0000 60 170 221
-2.5133 0.0000 1.1446 221 96 60
0.0447 -0.1200 -1.4548 221 65 60
0.7162 2.0581 -2.2000 60 81 221
-2.0958 -0.1200 -1.6926 221 65 60
-1.7874 -0.0000 -1.0567 221 92 60
-2.5000 1.7070 2.1507 60 188 221
2.6907 2.0475 2.0000 60 89 221
0.8701 -0.1200 0.8366 221 65 60
1.1862 2.7000 -2.1078 221 60 221
1.1408 2.6000 2.0076 187 60 221
2.5801 2.6000 -0.2218 190 60 221
-1.5135 2.7000 -1.4744 218 60 221
1.7687 2.0832 2.0000 60 69 221
1.0148 1.5763 -2.2000 60 216 221
0.8840 2.6000 1.2781 195 60 221
0.7894 2.7000 -1.5673 218 60 221
-1.2647 2.5661 2.2000 188 60 221
0.9941 2.7000 -2.1269 221 60 221
-0.1891 2.6000 1.0842 192 60 221
-1.0851 -0.0000 0.8541 221 89 60
-2.2253 1.5765 -2.2000 60 221 219
2.3825 -0.1200 0.4433 221 66 60
-0.6174 0.0598 -2.0000 221 105 60
0.6967 2.7000 -1.3119 216 60 221
-1.2192 2.6724 -2.2000 219 60 221
-2.5000 0.0282 1.1886 221 97 60
0.3014 1.0903 2.0000 60 221 90
-1.1364 2.6000 1.2439 196 60 221
2.7000 -0.1151 0.3641 221 64 60
2.3028 -0.0000 -1.6009 221 99 60
2.5000 0.4957 -0.0811 200 221 60
2.0077 -0.0000 -1.6989 221 93 60
0.2593 0.0000 2.0708 221 94 60
2.5000 0.8535 1.8897 109 221 60
-0.9566 -0.0000 1.5557 221 99 60
-0.2456 2.6000 -1.2831 187 60 221
-2.3360 2.6000 2.0000 192 60 221
0.2614 -0.0000 -0.0040 221 94 60
-2.4558 1.1569 -2.0000 60 221 103
-1.3038 2.7000 1.0810 215 60 221
-1.8899 2.6000 -1.4456 190 60 221
-1.5790 2.5064 -2.0000 164 60 221
2.7000 0.0855 0.2143 221 124 60
1.1885 2.6000 0.6225 192 60 221
0.2060 2.2412 -2.0000 88 60 221
2.0386 2.7000 -0.9553 217 60 221
1.4005 -0.0000 1.1510 221 98 60
-1.9005 2.6681 -2.2000 206 60 221
1.3563 2.6000 -2.0829 196 60 221
2.7000 2.0471 1.9900 60 86 221
2.4713 1.7087 -2.2000 60 176 221
1.3806 0.7636 -2.0000 125 221 60
-2.5637 -0.0000 0.1342 221 94 60
-1.9686 -0.0000 -0.9272 221 96 60
2.4509 0.4140 2.2000 221 216 60
-2.6859 0.0000 1.0461 221 100 60
-2.7000 0.7566 -0.9870 130 221 60
-0.3495 2.6000 -0.9902 198 60 221
-0.1331 -0.0000 -1.2235 221 92 60
-2.7000 1.9775 -0.8339 60 102 221
0.5776 0.2387 2.0000 221 168 60
1.1924 2.6000 -2.0526 188 60 221
0.0792 -0.0000 -1.4897 221 91 60
2.1210 2.6000 -1.5138 195 60 221
2.0281 1.3333 2.0000 60 221 158
-1.7206 2.0624 -2.2000 60 76 221
1.5855 -0.0000 -0.8156 221 99 60
0.6897 1.4910 2.0000 60 221 197
2.5000 1.6287 -2.0561 60 203 221
1.4864 0.0997 2.2000 221 118 60
-2.7000 1.0143 -2.0593 60 221 62
1.3601 2.7000 -1.1235 220 60 221
2.7000 0.0578 1.5053 221 111 60
1.8614 2.6000 -1.7332 187 60 221
2.1029 -0.1200 1.8016 221 60 60
-2.7000 0.0525 -0.0712 221 104 60
-0.5890 -0.0000 -0.7832 221 100 60
-1.1218 -0.1200 2.1285 221 60 60
1.7690 1.9387 2.0000 60 112 221
-2.5000 0.7562 -1.1956 131 221 60
0.0278 1.7924 2.0000 60 154 221
0.8432 -0.0000 1.8661 221 100 60
2.2437 1.8424 2.2000 60 142 221
-2.2902 0.4034 2.2000 221 203 60
-2.6482 1.4472 -2.0000 60 221 191
0.5915 -0.1200 -2.0990 221 60 60
1.7990 2.7000 -1.6731 216 60 221
0.4612 0.8495 2.2000 106 221 60
-2.5871 2.4279 -2.2000 143 60 221
2.6033 0.0000 -0.4544 221 93 60
0.4990 -0.0000 -1.8990 221 90 60
0.3641 2.7000 -2.1562 216 60 221
2.4133 0.7352 2.0000 136 221 60
-2.5000 0.1258 2.1330 221 124 60
1.0451 -0.1200 -1.6833 221 66 60
-1.7857 2.5717 -2.0000 179 60 221
-1.3891 2.6000 0.8152 191 60 221
1.4314 0.0000 2.1785 221 96 60
1.9365 0.7922 2.2000 124 221 60
0.4691 2.7000 1.5484 221 60 221
0.8106 1.5388 2.2000 60 221 212
1.9399 2.4925 2.2000 161 60 221
1.8120 2.6000 0.8025 197 60 221
1.4151 -0.1200 -1.8500 221 63 60
-1.2498 -0.1200 0.1996 221 60 60
0.8778 0.1714 2.0000 221 142 60
-2.7000 2.4980 -0.7571 165 60 221
-2.1559 -0.1200 1.1423 221 60 60
1.6874 2.6000 1.4932 197 60 221
1.6153 -0.1200 1.0742 221 62 60
1.8033 2.7000 -0.9411 221 60 221
2.5000 1.1129 1.3293 60 221 94
2.5000 0.4253 -1.1538 221 211 60
2.5000 2.1680 -0.2029 73 60 221
2.7000 1.6203 -2.0584 60 204 221
1.8620 2.6000 -0.2875 190 60 221
2.5873 2.7000 2.1845 220 60 221
-2.5851 2.6000 0.9292 196 60 221
2.7000 2.2056 0.1421 84 60 221
-1.9200 0.4807 -1.1676 216 221 60
1.1364 0.2497 -2.2000 221 166 60
2.7000 0.0093 1.0011 221 92 60
2.5531 2.6000 1.6181 187 60 221
-2.1204 -0.0000 1.6247 221 97 60
2.2138 1.9250 -2.0000 60 118 221
1.5722 2.6000 -2.1351 196 60 221
2.5498 0.7382 -0.2500 143 221 60
-2.2203 1.9690 2.0000 60 110 221
-0.2293 -0.0000 -1.0437 221 91 60
-0.1897 -0.0000 1.8976 221 91 60
2.6867 2.7000 1.0205 220 60 221
1.8642 -0.1200 0.1641 221 60 60
2.5000 0.3791 0.9157 221 206 60
-2.6210 -0.0000 -2.0488 221 93 60
2.5000 0.6678 1.4222 152 221 60
-0.8632 -0.1200 2.0875 221 63 60
1.3930 2.6000 2.1337 194 60 221
0.4285 2.5206 2.2000 168 60 221
-2.7000 0.1169 -2.1063 221 125 60
2.5402 -0.1200 1.2501 221 60 60
-0.4340 -0.1200 1.1831 221 62 60
2.5000 1.5867 2.1211 60 218 221
-0.1022 -0.0000 -0.0574 221 100 60
-1.3076 0.0623 -2.2000 221 116 60
2.2530 2.1901 -2.2000 81 60 221
1.1929 -0.1200 -0.4309 221 60 60
2.5188 1.0444 1.2500 60 221 68
2.6309 2.7000 0.3651 215 60 221
-1.7655 1.8310 -2.0000 60 147 221
-2.5000 1.9658 0.9259 60 103 221
-2.7000 1.8834 -2.1227 60 128 221
1.3151 2.7000 -0.8134 218 60 221
2.0186 -0.0000 1.3173 221 97 60
0.4723 1.5473 -2.0000 60 221 219
-0.3380 -0.0000 -0.1891 221 99 60
0.3893 2.6000 1.2276 187 60 221
-2.6878 0.0000 -2.1128 221 90 60
2.5108 1.4833 -2.2000 60 221 195
2.5206 -0.0000 0.6609 221 92 60
0.7380 -0.0000 1.7452 221 93 60
-1.5460 1.9787 2.2000 60 108 221
0.1037 2.6000 -0.3111 194 60 221
2.3188 2.0846 -2.2000 60 71 221
1.7359 2.7000 -1.1747 221 60 221
2.6024 0.0000 0.8592 221 100 60
1.9660 2.2779 -2.0000 97 60 221
-2.3558 2.6000 0.2362 193 60 221
1.0889 2.3067 2.2000 103 60 221
2.7000 2.6088 1.8175 191 60 221
-2.7000 2.6863 -2.1802 212 60 221
2.7000 0.6921 1.4015 152 221 60
2.4600 2.6000 -1.6459 195 60 221
-1.5369 -0.1200 -1.7636 221 61 60
-2.5000 1.5147 1.6912 60 221 211
2.6924 2.7000 0.5391 216 60 221
2.5000 0.2025 2.0269 221 150 60
-1.1682 2.7000 -2.0833 217 60 221
0.6178 -0.1200 1.5131 221 64 60
0.9230 2.3409 2.2000 114 60 221
-2.7000 1.5108 -1.2889 60 221 198
-2.5000 1.6157 0.2720 60 205 221
-1.1325 1.6418 -2.0000 60 199 221
-1.5587 -0.1200 1.8194 221 61 60
1.6916 2.6000 -2.0967 190 60 221
-2.5572 0.0000 -0.0350 221 101 60
1.4495 2.6000 0.2493 197 60 221
-0.8218 -0.0000 0.4316 221 99 60
1.0475 -0.1200 1.4066 221 61 60
-0.7887 -0.1200 -1.5075 221 65 60
2.7000 2.5552 1.4205 181 60 221
-2.0065 2.7000 1.7516 221 60 221
1.1197 2.1239 2.0000 60 64 221
-2.5000 0.2525 1.2965 221 166 60
-0.6300 1.1974 -2.0000 60 221 119
0.0153 -0.1200 -1.3552 221 60 60
-0.4246 1.7131 -2.2000 60 176 221
2.5885 -0.0000 1.7146 221 91 60
-1.2935 -0.1200 -0.7745 221 60 60
-2.5000 2.5805 -0.5061 184 60 221
1.6098 -0.0000 1.2779 221 90 60
-2.7000 1.7755 -1.9809 60 159 221
0.0780 0.1026 -2.2000 221 118 60
2.6858 1.8375 -2.2000 60 145 221
0.5223 -0.1200 0.0904 221 60 60
1.6717 -0.0000 0.6729 221 96 60
2.5000 1.6503 -0.2842 60 193 221
-0.4812 2.7000 0.7377 220 60 221
2.7000 1.6661 -0.6082 60 188 221
1.0083 0.0000 -2.0394 221 95 60
2.5946 2.6000 0.2519 189 60 221
-0.0670 -0.0000 2.1573 221 90 60
-0.4812 2.6000 0.1889 192 60 221
2.2270 2.7000 -1.6904 219 60 221
0.8267 0.2780 -2.0000 221 173 60
-0.1139 0.0000 -2.1118 221 94 60
2.6383 -0.1200 -0.3599 221 62 60
1.4807 -0.0000 1.6975 221 89 60
0.6563 2.6000 0.3022 191 60 221
-2.5393 0.0000 1.3039 221 91 60
-1.5866 2.7000 -1.9584 217 60 221
-1.6550 2.2994 -2.2000 112 60 221
-0.5340 2.7000 1.0500 216 60 221
-2.5000 0.1507 -0.6563 221 135 60
2.4993 -0.1200 1.5794 221 60 60
-1.6524 2.7000 -1.6958 221 60 221
-1.7418 1.1876 -2.0000 60 221 107
2.7000 1.9612 1.9743 60 109 221
-1.4322 -0.1200 1.9350 221 60 60
0.8744 1.7543 -2.2000 60 174 221
2.3675 2.7000 -0.9502 221 60 221
-2.3765 2.7000 1.8580 219 60 221
2.1811 2.6000 1.9873 198 60 221
1.9996 2.6000 -1.3348 197 60 221
2.7000 2.6603 -0.3907 204 60 221
1.5874 -0.1200 -0.8290 221 63 60
1.3218 0.3272 -2.2000 221 182 60
2.3758 -0.1200 0.2572 221 66 60
-1.9658 1.5379 2.0000 60 221 208
2.1569 -0.0000 2.1271 221 90 60
0.9870 2.7000 -0.9512 220 60 221
-2.7000 0.8610 2.1064 105 221 60
1.4294 2.7000 0.8820 218 60 221
2.6701 2.6000 -0.7208 189 60 221
-2.5000 1.4753 -0.5607 60 221 187
1.0840 1.7144 -2.0000 60 185 221
2.6955 2.6000 1.2595 188 60 221
-2.6068 0.2013 -2.2000 221 148 60
-0.0264 2.6000 -1.5342 187 60 221
1.2927 2.6000 -2.1131 192 60 221
-0.3522 0.5310 2.0000 194 221 60
-2.5000 2.1499 1.9324 67 60 221
-2.7000 2.5765 0.8368 191 60 221
-0.4488 2.5674 -2.0000 182 60 221
-0.5139 2.0500 2.1262 60 88 221
2.7000 2.5220 2.0670 164 60 221
-2.3184 -0.0000 -1.4920 221 88 60
-1.0864 2.0032 -2.2000 60 97 221
-2.4737 2.6000 1.4524 193 60 221
-2.4894 2.6000 -0.5386 189 60 221
-2.3697 2.6000 0.5441 195 60 221
-0.7626 -0.1200 1.0926 221 63 60
2.7000 0.9130 1.4765 88 221 60
0.3158 2.7000 0.3552 214 60 221
2.3114 0.0000 2.1413 221 98 60
-1.5000 1.3146 2.1280 60 221 151
0.1088 2.7000 1.3981 221 60 221
1.5278 -0.1200 -1.8096 221 60 60
2.4954 2.1482 -2.0000 60 61 221
-2.3668 -0.0000 -1.5581 221 93 60
0.6420 1.5655 -2.2000 60 221 215
-2.7000 1.7139 1.8466 60 179 221
0.5541 2.7000 -0.2733 221 60 221
0.0044 2.0099 -2.0000 60 91 221
-2.1404 1.6708 -2.0000 60 195 221
-2.5000 2.5143 -1.9517 166 60 221
-2.7000 1.0643 0.3590 60 221 72
2.3326 -0.0000 -1.1853 221 96 60
0.3570 -0.0000 1.2147 221 98 60
-0.2464 2.4118 2.2000 141 60 221
1.6844 -0.1200 0.2532 221 60 60
-1.9200 0.5558 -0.4257 186 221 60
-2.1278 2.7000 1.5252 216 60 221
-2.4981 0.2957 -2.2000 221 173 60
-2.7000 1.9564 1.3323 60 109 221
-1.6397 -0.0000 1.1409 221 96 60
-2.5000 0.9222 -0.9415 89 221 60
2.2620 -0.0000 -0.7955 221 92 60
-2.7000 0.8920 1.5495 97 221 60
2.7000 2.0335 -0.3739 60 86 221
2.5350 2.5745 -2.2000 181 60 221
-1.0090 0.7363 -0.4000 142 221 60
-1.8586 2.6000 1.7061 195 60 221
2.5829 2.7000 0.0728 221 60 221
2.7000 2.4702 2.0755 157 60 221
-2.7000 1.8840 -1.1927 60 134 221
2.7000 0.2403 -1.1162 221 167 60
1.3026 1.8111 2.2000 60 147 221
2.5202 1.3933 2.2000 60 221 169
-2.5376 2.6000 0.6405 191 60 221
2.7000 0.0035 -2.1852 221 91 60
2.5000 0.5189 -1.0389 200 221 60
-0.0573 2.0986 -2.2000 60 69 221
0.2921 2.5316 -2.0000 178 60 221
-0.3027 2.7000 -0.2027 218 60 221
2.5000 0.4393 -0.3016 221 218 60
1.0332 2.6000 1.2647 187 60 221
1.4461 -0.1200 -0.0954 221 64 60
2.5000 0.6969 -0.1665 151 221 60
1.2900 -0.0000 0.1645 221 94 60
-1.2334 2.6000 0.1431 188 60 221
1.0894 2.6000 -0.6257 195 60 221
2.0265 -0.0000 1.3359 221 97 60
0.9017 1.6926 2.0000 60 186 221
0.0777 -0.0000 -0.1609 221 91 60
2.7000 1.2308 2.1368 60 221 118
-0.3829 2.6000 -0.5927 187 60 221
2.1036 2.6000 0.6379 198 60 221
2.7000 0.4723 0.8730 212 221 60
-1.4500 -0.0000 -0.4842 221 90 60
-1.9689 2.7000 2.0671 221 60 221
2.5000 0.0973 -0.2573 221 119 60
1.1037 2.1009 -2.2000 60 64 221
0.4038 -0.1200 -0.6618 221 60 60
-1.1217 -0.1200 1.4377 221 64 60
-1.5934 -0.0000 -2.0347 221 94 60
-1.2396 -0.0000 -1.0405 221 94 60
2.7000 0.1955 1.0004 221 151 60
2.7000 -0.0230 -0.4836 221 83 60
-2.3174 -0.0000 -0.1340 221 92 60
-2.0663 1.8613 2.0000 60 137 221
-2.5000 2.4965 1.9136 157 60 221
0.1183 -0.1200 0.2769 221 64 60
-2.7000 1.0170 0.6729 64 221 60
1.6209 2.7000 -1.9547 218 60 221
1.9725 2.7000 1.7613 221 60 221
-0.5612 2.7000 -0.7324 221 60 221
-2.5000 1.4150 1.4871 60 221 179
2.1925 1.4234 2.2000 60 221 181
1.0456 2.7000 -2.0783 221 60 221
1.5121 -0.1200 0.7413 221 60 60
-0.4745 -0.0000 -0.6458 221 93 60
-0.8785 2.7000 -1.0016 215 60 221
0.3181 0.3264 2.0000 221 184 60
0.8989 2.7000 -2.0357 221 60 221
-2.7000 1.7232 -2.1301 60 174 221
2.2240 2.6000 -0.8596 187 60 221
-2.4670 2.7000 -0.9311 221 60 221
0.4399 2.6000 -2.1890 193 60 221
-2.3430 2.6000 -1.5220 191 60 221
-0.8659 0.1592 -1.1200 221 134 60
-2.5475 2.6000 1.2236 188 60 221
2.2851 -0.1200 -2.0889 221 60 60
-1.8944 0.0993 -2.2000 221 120 60
2.0276 -0.0000 -2.0764 221 95 60
2.5000 2.2163 2.0142 78 60 221
-2.0859 -0.0000 0.4976 221 100 60
-1.1704 2.6000 -1.8946 196 60 221
1.2426 1.5122 2.2000 60 221 200
-2.3713 2.7000 -1.0957 221 60 221
-0.1787 2.6000 -0.1910 197 60 221
0.8625 2.6000 0.4353 187 60 221
2.6754 2.1000 0.8749 60 72 221
-2.2118 2.6000 -2.1499 195 60 221
-1.5452 -0.1200 1.9114 221 60 60
-2.5838 1.7099 -2.2000 60 178 221
2.7000 2.4979 1.7056 168 60 221
-1.0116 -0.1200 -1.8739 221 64 60
2.5000 1.1032 1.4353 60 221 83
-2.2919 0.2721 -2.2000 221 169 60
-1.8929 0.3770 2.2000 221 205 60
0.8345 0.1830 -2.0000 221 143 60
-2.5000 1.6910 -0.2374 60 185 221
2.5295 2.1299 -0.2500 60 61 221
2.4331 2.6000 1.1827 186 60 221
2.0294 -0.0000 0.5037 221 95 60
2.5927 -0.1200 1.1104 221 65 60
-1.7543 2.7000 -1.7834 221 60 221
2.5000 2.4839 -0.9849 156 60 221
-2.7000 2.3342 -1.7783 120 60 221
-0.1588 2.7000 0.8565 220 60 221
1.6968 2.7000 -1.9053 221 60 221
2.7000 0.6182 0.3659 172 221 60
-2.5000 0.3476 1.5464 221 189 60
2.7000 0.3437 2.0869 221 192 60
-2.5000 2.1800 2.0465 77 60 221
2.7000 2.3959 -0.3498 138 60 221
0.3933 0.6448 2.0000 166 221 60
-2.3967 -0.1200 -1.7861 221 60 60
2.6543 1.8980 -2.0000 60 129 221
0.7899 0.4436 -2.0000 221 217 60
2.7000 1.6120 -1.6787 60 214 221
1.5572 2.6000 -1.5882 187 60 221
-0.6565 -0.0000 2.0878 221 89 60
-2.7000 0.5016 -2.0086 206 221 60
1.7669 -0.0000 1.1267 221 100 60
2.7000 0.4695 1.4866 208 221 60
0.8667 1.7286 2.2000 60 175 221
1.5891 2.7000 0.8612 219 60 221
2.5060 0.9000 1.0410 85 221 60
-2.2132 -0.1200 -0.8933 221 61 60
-2.7000 1.2097 -0.5681 60 221 120
-1.4769 2.1226 -2.0000 60 68 221
-1.6906 -0.0000 1.0631 221 88 60
0.6453 2.6000 -1.3554 192 60 221
2.7000 2.5542 1.5089 180 60 221
1.2036 -0.1200 -0.6825 221 66 60
-1.8573 0.7100 -0.8737 144 221 60
-1.9158 1.1261 -2.2000 60 221 100
1.6985 0.0747 2.0000 221 120 60
1.9452 -0.1200 1.9428 221 60 60
-0.4713 2.6000 1.0851 186 60 221
-1.5114 -0.0000 1.1942 221 98 60
2.5980 -0.1200 -2.1049 221 60 60
-0.6762 0.4000 -2.2000 221 205 60
0.4780 2.1637 -2.2000 68 60 221
-0.7316 2.6000 0.9157 198 60 221
0.5955 -0.1200 1.4038 221 60 60
2.7000 2.3909 0.6162 137 60 221
2.0724 -0.1200 -1.3763 221 60 60
-0.7752 2.6000 -0.6735 188 60 221
-2.0348 2.6000 -0.6298 196 60 221
2.5000 0.3651 0.3905 221 204 60
-1.9701 2.6000 -0.2821 194 60 221
1.7362 1.2427 2.2000 60 221 130
0.6179 2.6000 -1.0468 194 60 221
2.5000 2.4324 -0.6157 145 60 221
2.7000 1.8874 -1.6839 60 136 221
0.4588 1.5819 2.0000 60 221 220
0.3498 2.6000 -1.0398 195 60 221
-2.1629 2.2006 2.0000 83 60 221
-2.2121 -0.1200 0.9788 221 61 60
0.1423 1.0060 2.0000 60 221 63
-1.6230 2.6000 -1.3927 198 60 221
2.5431 2.6000 -0.3296 195 60 221
-0.6303 2.2897 -2.2000 109 60 221
-1.3352 2.4282 -2.2000 143 60 221
2.7000 1.5648 1.8319 60 221 219
2.0807 2.6000 -1.0529 189 60 221
-1.2940 2.6000 -0.6280 188 60 221
-0.8653 0.7500 -1.1600 136 221 60
0.5562 -0.1200 -1.1797 221 60 60
-0.3557 2.6000 -0.3611 194 60 221
-2.5000 1.3788 -1.3046 60 221 165
2.0802 -0.1200 -1.1180 221 64 60
-2.5993 2.6000 1.9102 193 60 221
-2.1356 1.2232 2.2000 60 221 123
1.0049 1.7826 -2.0000 60 166 221
-2.4706 2.6000 -0.9791 186 60 221
2.5000 2.1557 0.4481 71 60 221
-2.1150 2.7000 -1.4074 221 60 221
1.2550 1.2549 -2.2000 60 221 136
-1.2935 0.7100 -1.1213 149 221 60
2.2948 1.7448 2.2000 60 168 221
-2.7000 0.4259 -1.3474 220 221 60
2.7000 0.0360 -0.5799 221 103 60
-2.3201 -0.0000 2.0806 221 96 60
0.6491 2.7000 -1.8495 221 60 221
0.6584 1.0659 2.2000 60 221 74
2.5000 0.8776 0.7128 101 221 60
2.5000 2.3496 -0.0555 120 60 221
-2.5000 0.7713 -0.2689 134 221 60
-0.2064 2.7000 -0.8385 221 60 221
-2.5000 1.0750 -0.9807 60 221 76
-0.4179 -0.1200 -0.7614 221 62 60
0.3028 0.3373 -2.0000 221 186 60
2.6070 0.0000 1.9504 221 88 60
1.7094 1.3877 2.0000 60 221 163
-2.7000 2.5901 -0.3091 195 60 221
2.5000 1.3060 1.9270 60 221 142
1.7762 0.9239 2.0000 85 221 60
1.8778 0.7203 -2.2000 142 221 60
2.5000 1.1765 -0.3790 60 221 102
-1.3581 2.7000 -1.3468 221 60 221
1.1986 2.0616 2.2000 60 79 221
1.4751 1.2889 -2.2000 60 221 144
-2.5000 1.8304 -2.1200 60 143 221
1.4798 1.6703 2.2000 60 188 221
-0.0818 0.8632 2.2000 104 221 60
-2.2366 2.7000 -1.7827 221 60 221
0.8111 0.3366 2.2000 221 196 60
2.7000 2.5724 0.5701 184 60 221
0.3950 -0.0093 -2.2000 221 98 60
-2.5000 2.5962 -2.1670 190 60 221
-2.2565 1.3122 2.0000 60 221 150
2.6853 0.0000 -1.5040 221 100 60
2.0860 2.0022 -2.0000 60 104 221
1.4909 0.1929 -2.2000 221 153 60
-0.5401 -0.1200 0.6063 221 65 60
-0.8215 -0.1200 2.1724 221 60 60
1.2564 -0.1200 -0.7492 221 64 60
2.4584 -0.0000 2.0269 221 91 60
-1.5576 2.6000 0.3144 198 60 221
-2.2209 0.9525 2.2000 76 221 60
-0.1645 2.6000 -1.0481 192 60 221
-1.1263 0.5675 -2.0000 180 221 60
0.9477 2.6000 0.1422 194 60 221
0.4483 1.0637 -2.2000 60 221 79
-2.6209 0.0000 -0.0332 221 100 60
-1.3420 -0.0994 2.2000 221 65 60
0.1932 1.6517 -2.0000 60 204 221
-1.1269 0.7900 -0.4229 116 221 60
2.5000 0.1858 2.0861 221 144 60
-2.4304 1.9226 -2.0000 60 119 221
-2.5000 0.7568 0.1210 134 221 60
0.8763 2.0372 -2.0000 60 84 221
-2.1332 1.5717 2.2000 60 218 221
-2.5091 1.0727 2.2000 60 221 84
0.4632 1.2910 2.2000 60 221 135
2.5000 1.3271 -1.3329 60 221 156
-1.3962 -0.1200 -2.1414 221 64 60
1.9175 2.7000 0.8277 221 60 221
-1.8349 2.6000 -0.8931 186 60 221
1.2097 2.6000 -1.1722 192 60 221
-2.5797 2.6000 1.5234 190 60 221
0.7425 2.6742 -2.2000 217 60 221
2.5353 2.6000 0.2491 198 60 221
-1.5561 -0.0000 1.9463 221 94 60
-2.7000 0.0764 -1.5908 221 115 60
-2.7000 -0.0120 0.7977 221 91 60
0.7428 2.6000 -2.1234 194 60 221
-2.5000 0.7926 2.0286 123 221 60
-0.6625 -0.0000 -0.1342 221 92 60
2.7000 2.5353 -0.4770 170 60 221
-0.1942 2.6000 1.8530 190 60 221
-1.8172 0.5250 -2.0000 199 221 60
0.7523 0.0000 -2.1838 221 91 60
2.2863 2.6000 0.8505 192 60 221
2.7000 2.3112 -0.6548 111 60 221
-2.7000 0.6125 1.6600 172 221 60
-0.3335 2.6856 -2.2000 216 60 221
0.9167 2.7000 1.0568 221 60 221
2.6533 1.8137 -2.2000 60 148 221
2.6345 0.6023 1.2500 170 221 60
-2.5064 2.0718 2.0000 60 83 221
1.0010 2.7000 0.5267 217 60 221
1.0874 -0.1200 0.2587 221 60 60
-0.4888 2.6000 -1.2637 198 60 221
-0.0541 0.9937 2.2000 62 221 60
2.0217 0.8360 2.0000 112 221 60
2.6894 0.9903 -2.2000 67 221 60
2.3392 1.6962 2.0000 60 182 221
2.5000 0.2996 0.7149 221 175 60
-2.5000 1.1086 2.1823 60 221 92
1.4169 2.7000 -0.0320 218 60 221
2.6535 1.2357 2.2000 60 221 122
-2.4520 2.7000 -1.6323 221 60 221
2.5139 0.7649 -0.2500 129 221 60
-2.5000 0.7732 0.6017 129 221 60
-2.5000 2.1059 1.6282 60 75 221
-2.7000 1.4052 -0.4666 60 221 175
-1.0769 -0.0000 -1.6630 221 91 60
0.7013 0.5644 2.0000 185 221 60
0.0910 -0.1200 -0.4422 221 60 60
-0.8162 2.7000 -1.1092 221 60 221
-1.5509 0.7900 -1.1596 116 221 60
1.5656 -0.1200 0.7894 221 60 60
0.4860 2.7000 -1.8185 221 60 221
1.9511 2.6000 -0.7659 188 60 221
2.7000 0.8734 -1.8168 101 221 60
-0.7495 1.4589 -2.2000 60 221 188
-1.4829 0.7900 -0.5916 127 221 60
-2.6251 -0.0000 -0.2934 221 95 60
-2.5000 2.5625 0.0638 184 60 221
2.5000 1.8306 2.0605 60 142 221
-1.1381 1.3451 -2.0000 60 221 151
0.2627 -0.1200 1.7331 221 60 60
-1.6066 2.3008 -2.0000 102 60 221
-1.5174 -0.1200 -1.1912 221 65 60
-1.6388 1.5612 -2.2000 60 221 217
1.6459 -0.0000 0.9067 221 89 60
-1.0486 1.6021 -2.0000 60 209 221
1.1429 -0.0000 -1.8563 221 92 60
0.9761 1.4101 2.2000 60 221 175
0.9183 2.6000 1.4406 191 60 221
-0.7425 2.0733 2.0000 60 74 221
-0.2039 -0.1200 1.4616 221 60 60
1.8466 -0.0000 -1.0371 221 100 60
-2.6383 0.3248 2.0000 221 190 60
-2.5000 0.7250 -1.6545 136 221 60
-1.3278 2.7000 0.8450 221 60 221
1.2793 -0.0000 -1.9355 221 90 60
1.7150 -0.1200 -1.2622 221 60 60
-2.4051 -0.0000 1.4958 221 100 60
1.9344 2.6000 -1.4609 190 60 221
2.1477 2.7000 0.3448 220 60 221
0.0504 0.9297 2.2000 86 221 60
2.5000 1.5432 1.3068 60 221 216
-0.7467 0.7150 -2.0000 148 221 60
2.5270 0.9619 1.2500 69 221 60
-0.6267 1.3695 -2.0000 60 221 163
-2.5000 0.0607 -1.1662 221 107 60
-1.1068 1.1580 -2.2000 60 221 99
2.7000 1.4653 -2.1221 60 221 192
0.5972 0.6006 -2.2000 172 221 60
0.5243 2.6000 0.2583 189 60 221
2.5000 0.7145 1.5872 140 221 60
-0.4772 1.5332 -2.2000 60 221 205
-1.4792 2.7000 0.2645 216 60 221
2.5000 1.7170 1.6360 60 183 221
0.5584 -0.1200 0.9432 221 60 60
-2.7000 1.1600 0.3225 60 221 108
-2.4550 0.6345 2.0000 168 221 60
-0.8744 -0.1200 -1.9903 221 60 60
-2.5000 0.0361 -1.1013 221 107 60
-1.2459 0.0531 -2.0000 221 110 60
-0.8083 2.6000 -0.4183 191 60 221
2.6397 2.2626 -2.2000 90 60 221
-2.7000 1.4393 -0.1012 60 221 187
2.7000 1.9046 1.2872 60 129 221
-0.4652 2.7000 -1.9741 221 60 221
-1.9568 0.1866 -2.2000 221 150 60
-2.3660 -0.1200 0.5312 221 63 60
-2.7000 0.4201 -1.6541 221 209 60
1.4313 1.7006 -2.0000 60 185 221
2.6709 2.6000 1.8171 188 60 221
-2.5000 2.1498 -0.4474 62 60 221
-2.4658 0.2547 -2.0000 221 161 60
1.2980 2.7000 1.3060 221 60 221
-2.5000 1.6562 -1.4844 60 198 221
-0.0222 -0.0000 -1.6399 221 100 60
1.8047 -0.0000 0.1770 221 93 60
1.2263 2.0551 2.2000 60 79 221
1.1503 2.6000 1.8458 194 60 221
1.7777 2.7000 1.7406 218 60 221
-1.3468 2.6000 -1.3680 197 60 221
-1.5753 2.7000 0.5428 221 60 221
0.6308 0.1357 2.0000 221 127 60
-2.5000 0.4887 2.0078 208 221 60
-2.3806 -0.0000 -1.4635 221 97 60
1.8185 2.7000 1.2856 218 60 221
1.6805 -0.0000 1.8768 221 99 60
2.5000 0.9320 -1.9017 79 221 60
2.0444 -0.1200 0.2142 221 60 60
-1.0488 -0.0000 -0.5004 221 94 60
-1.7837 -0.1200 -1.6253 221 65 60
0.1920 -0.0000 -0.6995 221 89 60
-2.1255 2.3466 -2.0000 120 60 221
2.7000 1.3733 -1.5393 60 221 166
-0.7816 -0.0000 -1.0576 221 99 60
2.5315 2.6000 -1.2475 197 60 221
-2.7000 2.4586 0.5846 152 60 221
2.3832 0.7969 2.0000 120 221 60
-2.7000 1.3116 0.1333 60 221 150
-1.6869 1.4468 2.2000 60 221 191
2.1420 -0.1200 1.8881 221 60 60
-2.5000 1.7510 -0.5838 60 164 221
-1.5813 2.7000 1.8281 220 60 221
-2.5000 1.4893 -0.3427 60 221 191
-2.5000 1.0763 1.4820 60 221 82
1.4373 -0.1200 -0.9807 221 60 60
-1.6047 -0.0000 -1.3147 221 90 60
0.3341 -0.1200 1.2320 221 61 60
-2.7000 2.6776 -0.3546 220 60 221
2.7000 0.4676 -0.1357 212 221 60
-2.0519 0.1308 2.2000 221 131 60
-0.4448 1.1545 2.0000 60 221 99
0.5731 -0.1200 1.2733 221 63 60
-1.0856 2.6000 2.1694 194 60 221
-2.5281 -0.0000 2.0164 221 89 60
-2.7000 -0.1068 0.7174 221 60 60
2.5910 2.0178 -2.2000 60 98 221
0.9903 2.6000 -0.2012 196 60 221
-1.1441 2.6000 1.3584 191 60 221
-1.3272 0.6988 -2.0000 143 221 60
-0.6546 2.4986 2.0000 157 60 221
2.4018 -0.0000 0.2477 221 89 60
0.3980 1.2137 2.0000 60 221 119
-2.5448 -0.0000 1.6786 221 90 60
-1.1575 2.6000 -0.3647 191 60 221
-2.6441 -0.0000 1.4080 221 91 60
-1.9162 1.9885 2.2000 60 103 221
2.7000 0.4891 1.6155 203 221 60
-2.0597 1.8417 2.0000 60 146 221
2.5486 0.5990 1.2500 179 221 60
-2.5000 2.0798 2.0387 60 75 221
0.3058 -0.0597 -2.2000 221 77 60
-1.2546 -0.1200 -0.7154 221 63 60
2.5000 2.5148 -1.2811 170 60 221
2.5000 0.5082 -0.7820 197 221 60
2.7000 1.7714 -1.5707 60 165 221
-2.6054 1.6369 -2.0000 60 208 221
1.6513 0.6724 2.2000 153 221 60
2.6994 2.3519 -2.2000 124 60 221
-2.3673 2.5499 2.2000 180 60 221
-0.6663 -0.0000 1.7522 221 89 60
1.3495 -0.1200 -1.5872 221 60 60
-2.7000 2.4550 -1.5897 156 60 221
-0.5943 -0.0000 1.9497 221 97 60
